0.0	0.0	0.0
1.9305900399147828	0.9411370807590363	0.8784345284127183
0.6649477514584647	-0.20958061813862583	0.8910658227095118
0.7061440379984825	-1.0952710421718788	1.0043839547379416
2.130213192580441	-0.9360200017965313	1.6244788810745237
-0.6904395129923317	-1.757588899961919	-0.3456014239895131
3.4258244516459726	-1.2566480489962677	1.081039951230395
-0.2152446964517991	-1.344742761587899	2.639077081183682
-0.06352526234272707	-1.692548625247734	1.7112861061014064
-0.4272173994389197	-1.546592628855843	1.7988822319525766
3.8109344221826653	-1.2091211416100518	0.8149218244810387
3.1215207186920573	-2.0318591880909755	0.8387019702484303
2.469680018657054	-2.381543608247364	-0.887100526845546
2.177852202558684	-2.8165081628524256	-0.8915519086413863
4.980541141144098	-2.0078711852321613	0.9590116776622903
3.1277754483838813	-1.4086034557222025	1.9722597999888452
3.018649418941091	-0.44926197227179143	2.0155215383415563
4.220511285925094	-0.5116115272699315	1.127420720224935
7.0247127561015255	-0.9965456650341298	0.802324580535237
6.778310367305052	-0.2757476184193297	1.8411510630478036
10.16155003916542	0.22925488166169794	1.6452539751179323
9.013724678641763	-0.08047620609457112	2.108829895276232
10.430992840021768	0.483208889014834	2.8034919131351037
10.652409467729484	0.5504158730347314	2.2467994157899542
8.846953855794007	0.7531582004177136	1.4034205703291813
10.782585145653359	1.5811709771845788	0.2556995184876003
11.89917149703103	1.6428122957481017	1.457585423758661
13.949479704655822	1.7157112279654188	1.1909420215456765
13.308863969571664	2.495526936341896	2.226756421522771
14.346944977738168	1.8316568735108345	1.8792446443220816
14.142185570401455	2.3694161334198016	2.130006609057164
16.396087402861863	2.3013863863347717	2.365902868493897
15.446043152326313	2.620295920183996	0.2954333174787549
15.21331452710785	2.224620284589932	1.9770295515644973
15.358967097446769	2.323567477969887	2.6083173310697663
14.993050370821326	2.69451532894837	2.020646326573373
15.095058993625218	1.5723809775837772	1.7311017527435617
17.089207449683958	2.4280378417023982	3.2791628143755815
16.287553662609284	1.9619573791935165	3.9630540124123286
16.271435989976784	1.5545592621584476	4.48388152083976
15.667559503519483	1.9703337881664	4.395759924278586
14.979048897087742	1.4796042458385674	3.629145361229017
14.144799087025937	1.539216013384504	3.510495912063907
14.545672256869702	1.6128317078462135	4.62491811106072
16.165781814883356	0.6463621309464431	5.453363266189886
16.165456357541437	0.3364783749378939	3.335346673990532
13.535796873615016	-0.23716393514591272	4.120501307048436
14.821124767142887	-0.6676617628263336	5.390745601346649
15.497727308757248	-0.4072915892033145	5.266215200701587
17.27591378158652	-0.7525708420341286	4.966836490570185
15.391432027064019	-0.9406338870293959	3.4269310167973415
17.433993384429545	-1.3908849200862718	4.964806815858662
19.6934401838715	-1.446192379842711	5.3294391724034025
19.581174631385327	-1.5007071668613967	3.810820112250714
19.457092938243687	-1.5780339703896316	6.28604652878219
18.338854615636237	-2.5172751779972655	6.417621396403307
19.21194914842929	-2.7996815423497017	5.504970873703289
19.99336216975758	-2.305769839679631	4.728624681671025
19.43756758141997	-1.2124812597824366	5.033051779877471
18.007916817171218	-1.1538169089421328	4.041598895696301
22.469001795475826	-1.751128424210473	2.88598171756868
22.365541587048142	-1.6570639204934987	2.049219465995399
20.37162769976258	-0.5606266443865189	2.021646953499455
21.048011799854514	0.27798843484620883	2.426585495171933
23.10024913035396	0.21555423656920536	3.2711546680314383
21.408215294174113	0.08020797363271384	1.6946009777610598
21.9070466110495	0.401487214820448	0.9919553105365302
21.908726482678777	0.7978466896846319	4.6497073082940545
23.099830260748725	1.6186390757193165	3.1848316792124076
20.614680720827927	2.187459393901619	3.784862756515368
21.44458728889632	1.4853563057008254	4.276269449562969
20.417445090101214	1.5018057293367688	4.3064489144593034
20.219208673663985	1.7874941004442282	3.9110268713504923
21.47126537334221	1.102729940487007	4.23221549812833
18.754395450112998	1.601460831228705	4.233106936933484
19.067850370906253	3.1892374458917394	2.77502586888458
18.280024070507487	2.5126580104653646	5.6623371139904
15.910823305930474	2.571356093905672	6.072323797038453
16.55983737593873	2.6935287022855765	7.726407764861048
16.07796837099278	2.8574529506258464	7.247131968155856
15.37758896252861	2.7363444561733163	5.524172038245458
17.402272033606238	0.7920807398216352	4.221404089442313
17.310467085014047	1.4826965391974705	5.844612285608536
19.35829975261199	2.0240034427648808	3.58374543485113
18.944377320403028	1.306651183160377	6.042812716221087
19.272720919388785	2.109572988271663	4.847743712325271
18.784536235422266	2.1178339511254545	5.548627739692121
19.65113293094344	1.6152063596928268	5.052252199870653
17.32062060307415	1.9801393741397573	4.221108323699747
20.016471658722732	1.3287223428091428	3.800725276459207
20.352027762899503	0.5806840693759066	4.359219359004963
21.09632246970329	0.7201815027861715	3.8921891641941557
22.164905591376684	1.3397499819026393	3.378213796881002
21.554584229455166	1.163571973656087	4.45288802487965
22.162113420995993	1.4076325532339378	3.8822593607521494
21.14166629352711	1.764900745061961	4.309327416478926
19.91795780646519	1.675962884601821	3.1795450809452737
20.55269680452795	2.52887759634143	3.9654092664056146
17.549069494923675	3.034656005386298	1.4922795398004451
19.750545193587026	3.0538702873344183	2.019905366962116
21.84640248092291	3.634530991158316	1.9205196990689737
20.68499201365768	3.5128224663784855	1.2332532863887602
21.369497022577644	2.7109154219748497	-0.527198553270154
20.973398610632586	2.6253361503623642	-0.5049654125211468
20.64280869208345	2.37994881705025	-0.3339183796375035
19.827063415895825	2.3030464428636503	-2.232767060504781
20.11426642289185	2.8436106091309834	-1.019696285179364
20.259364215936706	3.191531344578811	-1.062340856112066
21.55028123271205	2.6298492726351417	-2.0018207991256443
20.156628076895736	4.2188548252918245	-0.5881139457580875
21.321181057775654	3.233102074423523	-2.1208327038411694
16.951485204401664	3.1341430744213743	-2.1351384747060598
18.860621956478912	3.3899100346119755	-2.110900285205772
19.070083651147353	3.619130521348654	-2.6648191262442786
22.860099233382144	3.8410487419795807	-0.7682434410692178
21.242648353794035	4.406720026764674	-2.6472348674500195
18.558846878697597	3.681406885914985	0.19490259667155385
17.975976347488043	3.886961304086963	-0.7923058731428219
20.074810806182263	4.327893455785513	-0.05073283366249859
20.163162455976106	4.72532387841065	-2.4118062047038507
18.940512031790853	4.986007434212751	-2.8729976180574788
20.82011684695162	6.008122006917085	-3.9013505494276703
21.21049752269438	5.6655075352539725	-1.8868376975322816
20.75726703717048	5.35712040522606	-2.2360511561358227
18.76216643517766	4.424069238041434	-0.5530623544516899
15.72328732611884	3.714357061965769	-2.7685955484983196
16.145207565334378	3.3082677134145784	-0.1345101208227626
18.12999000508266	3.5598749013511863	-0.6541215638065047
17.418309586312454	2.530342343301121	-0.6273208005145988
17.004849935840845	2.7420282329979844	-0.8737345885742193
18.024731975765373	2.409342427223452	0.7247762237896364
18.19581416660112	2.6992345034401795	-0.050284271715121065
17.27030898538489	1.754336806982915	-0.5916883728958409
14.305849722377626	1.4601167549862348	-1.7995663312981178
13.418694382582364	1.1267338567970204	0.8262071419342165
16.41140536352003	1.3314271846282346	0.374679400906966
14.328154999344008	1.2170999550651433	1.1123136168120888
15.042121423158068	0.8699969305360649	1.9284885098321858
14.253799707104454	0.8785812802734384	1.839099121340849
15.2427937746963	0.5813675729755929	2.8877164716778356
15.197923977248108	0.11439123455981692	3.4659340946219546
15.243995132433025	1.1221866017412259	2.4287425662800084
15.241833730477136	1.0567425945740097	2.4342160463993694
15.445791573592114	1.4671551722526692	1.8424209371397822
15.497975427151765	2.2453374253732017	1.9165145396009933
14.326838032265819	2.265042663466597	1.7919674786952058
15.642929453692137	2.160383575479966	1.9825779846871647
13.895164877431375	2.7684504148707356	1.1484070292794382
15.108650370353292	2.86496405876213	-0.3452010934676195
15.415751068623619	3.255475366204545	-0.7780555579106425
13.97468556991775	2.639285135587339	-0.555347158584904
14.24657890547685	3.8224503574148603	0.30847612702090965
17.71928428953391	4.622581433230445	1.7597773516414206
17.221057419530805	4.616300564028229	2.3246025020373926
17.89722648132169	4.119509716145763	3.504395337791388
17.00770690101706	4.125627892633993	1.5311987527681432
19.497677791854645	4.426037747898697	2.6325158666488377
19.40510827580392	5.034186603141307	2.5470946192507875
20.48587065130163	5.581324583795361	2.7321839265119605
20.795001541295047	4.648442824597689	2.345361585599129
22.446963460065657	4.6634549999985175	3.3685962544867962
22.488301038851112	3.995035355253616	3.751992364484299
21.55924441526712	4.446405780441837	3.2753950043556004
20.286807289205395	4.654145783959265	3.614789744655523
18.20186556508834	4.379831971253711	4.30805114957393
17.94139451193963	5.004737685576868	1.5835631458810258
16.3513310576841	5.035809883473581	3.5668278009675447
16.771390686998377	5.02622580205932	3.661291427173836
15.90532768412451	5.076760635703125	3.3727767219066664
18.461686563071606	6.032259949116374	3.0555914882116824
21.43376185141815	6.594841795928995	3.8575234741755993
20.40848223904518	5.790982549340083	4.562313022866348
17.76796935140535	5.706912924997673	3.844402251784847
17.02514180294938	6.122642443875198	4.165644818423707
17.36660789274251	6.0925404658165165	4.506135722213644
18.4626811498587	6.225913424770826	5.522372247020044
18.062080547353077	6.1768325459531	6.647207620667207
19.101406140422178	6.262943957827252	6.626885049531666
17.224530407999683	5.73872101273303	5.437728186036836
16.96959301633838	6.9105013696493796	6.939776099829013
18.01479927622398	7.1817070623260815	5.44922810576443
18.857061638003863	7.011205477808879	6.53786636520714
16.76053533855442	6.9533599327701365	6.460975150121073
16.382730198875898	7.3519746688993	6.2177158656654195
18.798458693487678	7.256340160093747	5.658704592302516
14.525135228469821	6.8941900184645535	6.319675841123255
18.75417450364813	7.136790293902746	8.003138035287632
17.796508320592594	6.8865609947909885	6.188862462226948
14.659698186855326	7.100691635058213	8.036592406860043
14.093628190949019	7.61300266601267	6.980672241805396
15.31325043472701	7.605353886388835	5.763492548677932
15.826895384761183	8.827196492133654	7.630602303122939
17.764789854318703	8.5731720311171	6.389998043046634
17.634658493140826	8.05055908699884	8.947702425473675
17.70526729250013	8.57528923566787	7.5080490365091945
19.61321906088145	8.97016993418329	6.159782944098757
20.247998384165104	9.114255292411618	6.067655609097555
19.545854702601943	9.388672489409748	6.437689995015518
20.67914852176534	10.071861478702386	4.668285460939434
